ply
format ascii 1.0
element vertex 533
property float x
property float y
property float z
property ushort label
property float nx
property float ny
property float nz
property float curvature
property uchar red
property uchar green
property uchar blue
property uchar alpha
property float quality
property float radius
end_header
4.96403 1.88969 0.0513041 17 0.0517211 0.0423234 0.997764 1 66 60 42 255 0.649073 22.0726
4.97894 1.89571 0.049696 17 0.0851176 0.0543143 0.99489 1 77 61 48 255 0.657724 22.0528
4.99389 1.90177 0.0480898 17 0.0804291 0.0645674 0.994667 1 81 67 46 255 0.666303 21.7075
5.00889 1.90786 0.0464857 17 0.0582755 0.0691295 0.995904 1 90 74 48 255 0.674803 21.3677
5.02368 1.91485 0.045439 17 0.0271409 0.0496118 0.9984 1 89 71 46 255 0.68322 21.6618
5.03824 1.92273 0.0449489 17 0.0643701 0.053592 0.996486 1 95 79 57 255 0.691546 21.9334
5.05363 1.92804 0.0427952 17 0.0710216 0.037869 0.996756 1 88 67 48 255 0.699777 22.5577
5.06826 1.93596 0.0423079 17 0.0125976 0.0380836 0.999195 1 91 73 49 255 0.707906 21.8951
5.08291 1.94389 0.0418215 17 0.0886319 0.037959 0.995341 1 97 74 50 255 0.715928 22.8057
5.09871 1.94845 0.0391196 17 0.131938 0.0652716 0.989107 1 104 76 50 255 0.723837 22.5567
5.1143 1.95389 0.0369747 17 0.06728 0.0428484 0.996814 1 88 66 44 255 0.731627 22.4577
5.12905 1.9619 0.0364933 17 0.0544306 0.0295439 0.998081 1 88 69 51 255 0.739293 22.7404
5.14443 1.96825 0.034906 17 0.0574578 0.022725 0.998089 1 76 62 43 255 0.746829 23.0409
5.15925 1.9763 0.0344271 17 0.0490559 0.0396634 0.998008 1 77 66 40 255 0.754229 22.3784
5.17471 1.98271 0.0328434 17 0.0561581 0.0645284 0.996335 1 88 67 47 255 0.761487 21.7394
5.1899 1.98997 0.0318142 17 0.0231748 0.0523307 0.998361 1 78 69 52 255 0.768599 21.7089
5.2048 1.99808 0.0313391 17 0.0426714 0.0512697 0.997773 1 80 63 48 255 0.775559 21.9983
5.22038 2.00457 0.0297606 17 0.0768728 0.0570045 0.99541 1 83 64 45 255 0.782362 22.3328
5.23601 2.01109 0.0281842 17 0.0380861 0.0220156 0.999032 1 73 62 45 255 0.789002 22.919
5.25066 2.02007 0.0282648 17 -0.0119871 0.0105673 0.999873 1 86 68 50 255 0.795474 22.5879
5.26532 2.02906 0.0283457 17 0.00426633 0.0494708 0.998767 1 83 60 47 255 0.801773 21.6132
5.2807 2.03645 0.027325 17 0.00839163 0.0417533 0.999093 1 87 66 48 255 0.807895 21.9082
5.2954 2.04546 0.0274075 17 0.0168077 0.0260748 0.999519 1 86 60 46 255 0.813834 22.5019
5.31083 2.0529 0.0263893 17 0.0353365 0.02578 0.999043 1 80 62 43 255 0.819586 22.8131
5.32593 2.06114 0.025923 17 0.00557895 0.012431 0.999907 1 81 70 46 255 0.825146 22.7932
5.34068 2.07019 0.0260078 17 -0.0189108 0.0214303 0.999592 1 81 67 49 255 0.83051 22.1535
5.35544 2.07925 0.0260931 17 -0.00961063 0.00622218 0.999935 1 83 66 45 255 0.835673 22.7546
5.37021 2.08831 0.026179 17 -0.0242509 -0.000739864 0.999706 1 76 67 37 255 0.840631 22.7472
5.38461 2.09816 0.0268146 17 -0.00488696 0.0300515 0.999537 1 87 68 44 255 0.845381 22.0894
5.40019 2.10569 0.0258029 17 0.0198711 0.0541431 0.998336 1 82 63 42 255 0.849918 21.802
4.53079 1.65177 0.0831071 17 0.011029 0.0109502 0.999879 1 69 56 51 255 0.377382 23.6789
4.54445 1.66007 0.08315 17 0.0405945 0.0341947 0.998591 1 66 59 47 255 0.385766 22.8014
4.55832 1.66537 0.0815219 17 0.2558 0.0665859 0.964434 1 58 60 46 255 0.394226 22.8434
4.57283 1.66274 0.0754392 17 0.254905 0.0605567 0.965068 1 72 54 50 255 0.402757 23.1932
4.58684 1.66814 0.073817 17 0.0765468 0.0451233 0.996045 1 63 60 38 255 0.411357 22.6198
4.60081 1.67456 0.0727534 17 -0.00263853 0.0334943 0.999436 1 62 54 42 255 0.420022 22.7314
4.61454 1.68396 0.0733601 17 -0.0528272 0.0449288 0.997593 1 58 58 42 255 0.428749 22.1294
4.62838 1.69237 0.0734106 17 -0.0135625 0.0523124 0.998539 1 67 56 48 255 0.437534 21.9383
4.64232 1.69982 0.0729061 17 0.000694845 0.066162 0.997809 1 73 57 46 255 0.446374 21.4984
4.65629 1.70729 0.0724025 17 0.056407 0.0881831 0.994506 1 66 53 48 255 0.455263 21.0147
4.67062 1.71186 0.0702341 17 0.0350612 0.0854874 0.995722 1 71 55 52 255 0.464199 21.018
4.68453 1.72033 0.0702883 17 0.0475424 0.0577864 0.997196 1 75 57 51 255 0.473177 21.952
4.69895 1.72496 0.0681238 17 0.0509911 0.0499218 0.997451 1 70 57 52 255 0.482193 22.2582
4.7129 1.73347 0.0681801 17 0.00251414 0.0610867 0.99813 1 64 52 52 255 0.491242 21.6066
4.72714 1.74007 0.0671282 17 0.00691138 0.0527126 0.998586 1 70 51 36 255 0.50032 21.8953
4.74113 1.7486 0.0671859 17 -0.0561067 0.0496731 0.997189 1 71 60 46 255 0.509422 21.6786
4.75499 1.75808 0.0677979 17 -0.0429147 0.0635742 0.997054 1 60 54 51 255 0.518544 21.2404
4.76915 1.76568 0.0673029 17 0.0100065 0.0876679 0.9961 1 78 61 53 255 0.52768 20.7429
4.78349 1.77235 0.0662555 17 0.0191251 0.0691998 0.99742 1 70 60 45 255 0.536826 21.3497
4.79771 1.77998 0.0657628 17 -0.000573099 0.065364 0.997862 1 69 60 50 255 0.545977 21.342
4.81194 1.78763 0.065271 17 0.017947 0.0706615 0.997339 1 69 63 46 255 0.555128 21.2752
4.82637 1.79437 0.0642278 17 0.0361499 0.0765148 0.996413 1 81 58 47 255 0.564272 21.2146
4.84084 1.80113 0.063186 17 0.0541646 0.0825161 0.995117 1 68 58 49 255 0.573406 21.1648
4.85553 1.80699 0.0615937 17 0.0573066 0.0744624 0.995576 1 61 63 50 255 0.582524 21.4517
4.87007 1.8138 0.0605553 17 0.0195398 0.0656259 0.997653 1 75 64 49 255 0.591619 21.4485
4.88445 1.82155 0.0600698 17 0.0416096 0.0622317 0.997194 1 71 61 45 255 0.600688 21.7177
4.89926 1.8275 0.0584829 17 0.0767805 0.0734753 0.994337 1 70 59 42 255 0.609724 21.6806
4.91412 1.83347 0.0568981 17 0.0481642 0.0470952 0.997729 1 78 65 44 255 0.618721 22.2993
4.92859 1.84128 0.0564166 17 0.0473331 0.0481407 0.997719 1 76 63 37 255 0.627675 22.2551
4.94352 1.84731 0.0548352 17 0.0947946 0.0737756 0.99276 1 79 67 40 255 0.636578 21.9068
4.95873 1.85249 0.0527056 17 0.0969777 0.0663918 0.99307 1 78 59 39 255 0.645427 22.2063
4.97376 1.85859 0.0511285 17 0.0692512 0.0400724 0.996794 1 79 60 48 255 0.654213 22.82
4.9886 1.8656 0.0501032 17 0.0517686 0.0360759 0.998007 1 75 65 46 255 0.662933 22.7824
5.00347 1.87264 0.0490795 17 0.0260751 0.0483924 0.998488 1 72 59 37 255 0.671579 22.1163
5.01813 1.88057 0.0486063 17 0.0421367 0.0551729 0.997588 1 77 62 37 255 0.680147 22.0604
5.03332 1.88678 0.0470363 17 0.0819419 0.0506068 0.995352 1 87 70 50 255 0.68863 22.6781
5.04856 1.89302 0.0454683 17 0.100346 0.0489374 0.993748 1 85 69 48 255 0.697022 22.9983
5.06411 1.89843 0.0433538 17 0.0601078 0.0557881 0.996632 1 82 71 48 255 0.705318 22.3181
5.0789 1.90646 0.0428865 17 0.0823982 0.0459221 0.995541 1 76 65 40 255 0.713512 22.9298
5.09483 1.91107 0.0402283 17 0.106292 0.0291849 0.993907 1 92 65 53 255 0.721597 23.9135
5.10997 1.91829 0.0392163 17 0.0646833 0.0427667 0.996989 1 91 68 45 255 0.729569 22.8797
5.12543 1.92469 0.0376584 17 0.0563031 0.0607483 0.996564 1 89 68 51 255 0.737421 22.222
5.14065 1.93196 0.0366498 17 0.059265 0.0532719 0.99682 1 84 69 42 255 0.745147 22.5176
5.1562 1.93842 0.0350955 17 0.0268909 0.042167 0.998749 1 80 64 49 255 0.752743 22.4913
5.17088 1.94741 0.0351835 17 0.0105962 0.0366115 0.999274 1 75 65 50 255 0.760201 22.4629
5.18619 1.95475 0.0341792 17 0.0371446 0.0587488 0.997582 1 78 69 48 255 0.767518 22.1188
5.20154 1.96211 0.0331761 17 0.0363809 0.0597737 0.997549 1 74 62 48 255 0.774686 22.0984
5.21692 1.9695 0.0321748 17 0.0397359 0.0522652 0.997843 1 86 62 50 255 0.781701 22.3937
5.23234 1.97691 0.0311749 17 0.054264 0.0600565 0.996719 1 81 62 52 255 0.788557 22.3776
5.24812 1.98352 0.0296311 17 0.0340011 0.063026 0.997433 1 77 59 48 255 0.79525 22.0451
5.26327 1.9918 0.0291797 17 -0.0284911 0.0360978 0.998942 1 82 64 45 255 0.801773 22.0504
5.27775 2.0017 0.0298191 17 -0.00865809 0.0353366 0.999338 1 82 64 48 255 0.808123 22.3101
5.29328 2.00919 0.0288245 17 0.0321887 0.0653875 0.997341 1 88 64 47 255 0.814293 21.9903
5.30885 2.01671 0.0278315 17 0.0248096 0.0425458 0.998787 1 79 61 49 255 0.820279 22.5923
5.32409 2.02504 0.027384 17 0.000465255 0.0526392 0.998614 1 73 62 46 255 0.826076 21.957
5.33935 2.03339 0.0269377 17 -0.0200147 0.0543443 0.998322 1 82 68 50 255 0.83168 21.6432
5.35426 2.04255 0.027036 17 -0.0253251 0.0633419 0.997671 1 82 65 48 255 0.837086 21.3275
4.53523 1.61925 0.083588 17 0.0298678 0.0515493 0.998224 1 65 58 42 255 0.380264 22.6256
4.54911 1.62665 0.0830934 17 0.0685884 0.0133054 0.997557 1 56 56 51 255 0.388712 24.275
4.56315 1.63205 0.0814979 17 0.194053 0.0499173 0.97972 1 62 58 44 255 0.397235 23.5072
4.5776 1.6325 0.0771515 17 0.204362 0.092691 0.974497 1 64 56 46 255 0.405832 22.0906
4.59184 1.63699 0.0750111 17 0.0854706 0.0667986 0.994099 1 59 57 43 255 0.414497 22.3386
4.60597 1.64351 0.0739734 17 -0.0144342 0.0517099 0.998558 1 60 54 42 255 0.423229 22.4882
4.61985 1.65301 0.0745865 17 -0.0479387 0.0366363 0.998178 1 62 54 44 255 0.432023 22.8991
4.63383 1.66152 0.0746501 17 -0.00515658 0.0352378 0.999366 1 63 55 43 255 0.440875 23.0424
4.64792 1.66907 0.074165 17 -0.010441 0.0443497 0.998962 1 71 58 49 255 0.449782 22.6554
4.66193 1.67761 0.07423 17 0.00343388 0.0573839 0.998346 1 65 50 49 255 0.458739 22.2115
4.67618 1.68421 0.0731978 17 0.0727071 0.0926562 0.99304 1 60 51 42 255 0.467743 21.3684
4.69071 1.6889 0.0710699 17 0.105347 0.0601773 0.992613 1 78 56 43 255 0.47679 22.6816
4.70516 1.69459 0.0694929 17 0.0157926 0.0736249 0.997161 1 79 61 52 255 0.485874 21.7174
4.71927 1.70319 0.0695621 17 0.00550475 0.0521848 0.998622 1 70 58 39 255 0.494993 22.3632
4.73366 1.70989 0.0685361 17 0.00490805 0.0531005 0.998577 1 78 64 45 255 0.50414 22.3176
4.7478 1.71852 0.0686069 17 -0.0457243 0.0328789 0.998413 1 62 57 43 255 0.513312 22.7512
4.7618 1.7281 0.0692255 17 -0.0457927 0.0329666 0.998407 1 70 60 47 255 0.522503 22.6963
4.77596 1.73674 0.069297 17 0.0266144 0.050326 0.998378 1 62 59 50 255 0.531709 22.4546
4.79061 1.74256 0.0677285 17 0.0442062 0.0556341 0.997472 1 65 56 47 255 0.540925 22.3959
4.80497 1.75029 0.0672551 17 -0.00612184 0.0349876 0.999369 1 67 62 44 255 0.550146 22.7727
4.81919 1.75897 0.0673291 17 0.00665991 0.0484163 0.998805 1 68 63 49 255 0.559366 22.3556
4.83377 1.7658 0.0663116 17 0.0420773 0.05848 0.997402 1 77 61 52 255 0.568581 22.2617
4.84838 1.77265 0.0652954 17 0.0771642 0.0688198 0.994641 1 70 58 50 255 0.577784 22.2031
4.86341 1.77768 0.0631898 17 0.0761356 0.0702489 0.99462 1 71 61 48 255 0.586971 22.1776
4.8781 1.78459 0.0621772 17 0.0260465 0.0484891 0.998484 1 72 62 44 255 0.596137 22.4994
4.89263 1.79243 0.0617113 17 0.02111 0.0577864 0.998106 1 82 63 54 255 0.605274 22.1389
4.90739 1.79938 0.0607015 17 0.0873947 0.087965 0.992283 1 61 60 39 255 0.614379 21.7491
4.92281 1.80364 0.0580596 17 0.0862822 0.0894869 0.992244 1 70 60 47 255 0.623445 21.737
4.93766 1.81064 0.0570536 17 0.0362584 0.0660449 0.997158 1 63 61 44 255 0.632467 22.035
4.95253 1.81767 0.0560491 17 0.0737641 0.0689651 0.994888 1 78 61 45 255 0.641439 22.3041
4.9679 1.82294 0.0539587 17 0.0863226 0.0846494 0.992665 1 77 62 42 255 0.650354 21.9664
4.98309 1.82914 0.0524142 17 0.0641587 0.0898216 0.993889 1 82 65 47 255 0.659208 21.6169
4.99833 1.83536 0.0508717 17 0.0407866 0.0538656 0.997715 1 69 58 42 255 0.667994 22.5452
5.01312 1.84339 0.0504172 17 0.0438956 0.0466736 0.997945 1 71 61 47 255 0.676707 22.8214
5.02844 1.84967 0.0488784 17 0.0982496 0.0475467 0.994026 1 68 69 47 255 0.68534 23.458
5.04406 1.85511 0.046799 17 0.0781823 0.0515581 0.995605 1 75 67 48 255 0.693888 23.1069
5.05921 1.86233 0.0458065 17 0.0490168 0.0340733 0.998217 1 89 64 43 255 0.702344 23.3831
5.07439 1.86957 0.0448157 17 0.0602382 0.0488344 0.996989 1 90 68 52 255 0.710703 23.0205
5.08989 1.87597 0.0432845 17 0.0940801 0.0529875 0.994154 1 78 61 43 255 0.71896 23.3468
5.10571 1.88155 0.041214 17 0.0740978 0.0570947 0.995615 1 79 64 47 255 0.727107 22.9858
5.12101 1.88887 0.0402284 17 0.0492756 0.0310971 0.998301 1 78 58 47 255 0.735139 23.5798
5.13635 1.89622 0.0392444 17 0.0447955 0.0398992 0.998199 1 69 63 50 255 0.743051 23.2292
5.15172 1.90359 0.0382617 17 0.0557895 0.0547496 0.996941 1 79 65 44 255 0.750837 22.894
5.16744 1.91014 0.0367404 17 0.0355469 0.0580211 0.997683 1 89 68 47 255 0.75849 22.557
5.18258 1.9184 0.0363013 17 0.0234643 0.0443826 0.998739 1 82 65 44 255 0.766006 22.8498
5.19805 1.92584 0.0353232 17 0.0381405 0.0515647 0.997941 1 79 64 44 255 0.773378 22.8266
5.21356 1.93331 0.0343467 17 0.0374003 0.0525605 0.997917 1 87 66 43 255 0.780601 22.8049
5.22911 1.94079 0.0333717 17 0.0480939 0.0681566 0.996515 1 83 69 42 255 0.787669 22.4843
5.24502 1.94748 0.031859 17 0.0472765 0.0692383 0.99648 1 83 63 42 255 0.794578 22.475
5.26064 1.95502 0.0308873 17 -0.00850144 0.0670874 0.997711 1 83 64 41 255 0.801322 21.8336
5.27561 1.96421 0.0309946 17 -0.0295906 0.0693299 0.997155 1 77 60 43 255 0.807895 21.5144
5.29093 1.9726 0.030564 17 -0.00467448 0.0596771 0.998207 1 77 68 48 255 0.814293 22.1008
5.30628 1.98101 0.0301343 17 -0.00363078 0.0938128 0.995583 1 67 60 41 255 0.82051 21.1783
4.53957 1.58965 0.0860521 17 0.096723 0.0913065 0.991115 1 59 53 53 255 0.383059 21.8779
4.55384 1.5931 0.0833977 17 0.095741 0.036346 0.994743 1 60 49 50 255 0.391569 23.9556
4.5679 1.60062 0.0829239 17 0.132149 0.0432012 0.990288 1 58 51 41 255 0.400156 23.867
4.58244 1.60215 0.0791865 17 0.176783 0.0990331 0.979255 1 61 55 49 255 0.408815 22.1281
4.59683 1.60673 0.0770846 17 0.0707474 0.0951685 0.992944 1 68 61 36 255 0.417545 21.7409
4.6111 1.61333 0.0760724 17 0.00310418 0.0556278 0.998447 1 67 49 43 255 0.42634 22.8495
4.62522 1.62194 0.0761487 17 -0.0115555 0.0441809 0.998957 1 69 52 47 255 0.435199 23.1916
4.63944 1.62957 0.0756821 17 -0.00715084 0.0363918 0.999312 1 64 58 47 255 0.444116 23.4786
4.65359 1.6382 0.0757595 17 -0.0309865 0.041818 0.998645 1 62 55 49 255 0.453088 23.1422
4.66775 1.64684 0.0758374 17 0.0105225 0.0408954 0.999108 1 71 63 41 255 0.462112 23.3068
4.68215 1.65353 0.0748312 17 0.083851 0.0558819 0.99491 1 64 59 50 255 0.471182 23.1394
4.69683 1.65831 0.0727422 17 0.0606274 0.0624273 0.996207 1 59 59 42 255 0.480295 22.7785
4.71118 1.66603 0.0722811 17 0.0134878 0.0737876 0.997183 1 70 58 40 255 0.489446 22.1177
4.72569 1.6728 0.0712797 17 0.032031 0.0784221 0.996406 1 70 54 38 255 0.498631 22.0534
4.74024 1.6796 0.0702797 17 0.00758957 0.0845965 0.996387 1 70 59 45 255 0.507846 21.7205
4.75467 1.68737 0.0698223 17 -0.0392577 0.0546888 0.997732 1 68 54 52 255 0.517085 22.4708
4.76883 1.69706 0.0704476 17 -0.0394119 0.0548605 0.997716 1 65 55 48 255 0.526344 22.4177
4.7833 1.70485 0.0699918 17 0.0197986 0.0594487 0.998035 1 69 64 42 255 0.535618 22.5671
4.79795 1.71172 0.0689966 17 0.0330087 0.0736926 0.996735 1 70 60 48 255 0.544902 22.166
4.81264 1.71861 0.0680028 17 -0.00428595 0.0656272 0.997835 1 69 59 45 255 0.55419 22.1943
4.82701 1.72739 0.0680903 17 -5.55255e-05 0.0575117 0.998345 1 77 61 47 255 0.563478 22.4695
4.84176 1.73433 0.0670991 17 0.043119 0.0506702 0.997784 1 72 63 42 255 0.57276 23.0208
4.85653 1.74128 0.0661095 17 0.0632712 0.0480264 0.99684 1 70 68 47 255 0.582032 23.2923
4.87154 1.74733 0.0645823 17 0.075948 0.0622338 0.995168 1 76 60 48 255 0.591286 22.9149
4.88658 1.75342 0.063057 17 0.0192004 0.0577262 0.998148 1 73 65 50 255 0.600519 22.6029
4.90107 1.76228 0.0631495 17 0.00123036 0.0536496 0.998559 1 66 62 44 255 0.609724 22.5805
4.91599 1.76933 0.062166 17 0.0562386 0.0608345 0.996562 1 73 57 48 255 0.618896 22.8061
4.93115 1.77549 0.0606458 17 0.047539 0.0796533 0.995689 1 70 57 42 255 0.628029 22.1208
4.94614 1.78259 0.0596654 17 0.0640157 0.0858935 0.994246 1 73 58 39 255 0.637117 22.0845
4.91151 1.46105 0.0776223 17 0.0578894 0.010342 0.99827 1 58 54 36 255 0.601196 29.8185
4.9275 1.46984 0.0773362 17 0.072697 0.00932929 0.997311 1 61 53 43 255 0.610928 30.0749
4.94432 1.47489 0.0751012 17 0.125723 0.0191302 0.991881 1 60 53 33 255 0.620642 30.3685
4.9612 1.47998 0.0728691 17 0.008723 -0.0107635 0.999904 1 58 56 44 255 0.630333 30.4384
4.97626 1.49351 0.0750231 17 -0.0205564 0.0123197 0.999713 1 62 49 39 255 0.639995 28.6863
4.99301 1.49959 0.0732816 17 0.12131 0.0283366 0.99221 1 56 53 40 255 0.649622 29.8433
5.01026 1.50386 0.0705697 17 0.14566 0.037288 0.988632 1 49 49 44 255 0.659208 29.8496
5.0276 1.50818 0.0678613 17 0.117237 0.0368762 0.992419 1 67 52 38 255 0.668747 29.4519
5.04454 1.51439 0.0661285 17 0.0774271 0.0267139 0.99664 1 63 54 45 255 0.678234 29.3848
5.06131 1.52156 0.0648838 17 0.0871956 0.0376535 0.99548 1 59 52 47 255 0.687661 28.9944
5.07861 1.52693 0.0626703 17 0.124782 0.0512366 0.990861 1 69 55 39 255 0.697022 28.9977
5.09623 1.53145 0.0599746 17 0.0917933 0.0625065 0.993815 1 61 51 44 255 0.706312 27.9577
5.11316 1.53873 0.0587372 17 0.038115 0.0140196 0.999175 1 59 52 40 255 0.715525 29.5688
5.12961 1.54783 0.0584713 17 0.0370402 0.0470498 0.998206 1 72 55 42 255 0.724653 27.8775
5.14689 1.55427 0.0567531 17 0.062659 0.0570415 0.996404 1 63 51 44 255 0.733691 27.8448
5.16395 1.56164 0.0555215 17 0.0486475 0.0536635 0.997374 1 69 52 44 255 0.742633 27.8076
5.18106 1.56904 0.054292 17 0.0504172 0.0488029 0.997535 1 64 49 46 255 0.751472 28.0929
5.19821 1.57647 0.0530645 17 0.0368357 0.0451238 0.998302 1 68 50 40 255 0.760201 28.0679
5.21512 1.58481 0.0523225 17 0.0332586 0.0522105 0.998082 1 71 58 38 255 0.768816 27.6961
5.23236 1.59229 0.0510988 17 0.0505748 0.0462226 0.99765 1 70 55 44 255 0.777309 28.3002
5.24964 1.59981 0.049877 17 -0.00358184 0.0339835 0.999416 1 81 54 48 255 0.785675 27.9706
5.26574 1.61083 0.050588 17 0.084123 0.0687905 0.994078 1 68 61 38 255 0.793907 27.9132
5.28529 1.61236 0.0459923 17 0.295123 0.108318 0.9493 1 75 59 39 255 0.801999 31.311
4.82336 1.37733 0.0843614 17 0.0594219 0.039383 0.997456 1 57 47 41 255 0.545362 28.9104
4.8392 1.3871 0.0845717 17 0.0610189 0.0344067 0.997544 1 53 47 38 255 0.555128 29.1789
4.85606 1.39107 0.081887 17 0.104147 0.0393449 0.993784 1 67 49 41 255 0.564908 29.4697
4.87248 1.39799 0.0806527 17 0.0553468 0.0115222 0.998401 1 55 46 48 255 0.5747 30.4853
4.88877 1.4059 0.0799025 17 0.0306882 0.00127372 0.999528 1 50 49 47 255 0.584496 30.7956
4.90491 1.41478 0.0796357 17 0.0648156 0.0221914 0.997651 1 55 50 41 255 0.594292 29.9681
4.92183 1.41988 0.0774437 17 0.101618 -0.000443012 0.994824 1 67 52 45 255 0.604082 31.9547
4.93843 1.42692 0.0762174 17 0.113122 0.00357301 0.993575 1 57 50 42 255 0.61386 31.9172
4.95568 1.43116 0.0735498 17 0.112132 0.00504659 0.993681 1 61 45 43 255 0.623621 31.8734
4.97238 1.43827 0.0723282 17 0.0101351 -0.0153071 0.999832 1 62 54 44 255 0.633359 31.5735
4.98808 1.45009 0.0735112 17 0.0621783 -0.0362316 0.997407 1 62 59 44 255 0.643067 33.8241
5.0055 1.45445 0.0708516 17 0.140302 -0.008354 0.990074 1 63 52 39 255 0.652741 33.4505
5.02278 1.4598 0.0686754 17 0.0946792 0.0110576 0.995447 1 54 49 45 255 0.662373 31.3177
5.03967 1.46703 0.067462 17 0.0814008 0.00900415 0.996641 1 67 55 45 255 0.671958 31.236
5.05684 1.47338 0.0657709 17 0.0908392 0.018871 0.995687 1 62 52 46 255 0.68149 30.8532
5.07407 1.47977 0.0640823 17 0.105529 0.0137511 0.994321 1 62 53 45 255 0.690962 31.4904
5.0916 1.48528 0.0619174 17 0.0787613 0.0126227 0.996814 1 65 55 47 255 0.700368 31.1006
5.10844 1.49357 0.0611917 17 0.0798673 0.0442541 0.995823 1 60 51 41 255 0.709703 29.3694
5.12635 1.49826 0.0585535 17 0.0213523 0.0143922 0.999669 1 62 47 44 255 0.71896 30.0462
5.14197 1.51111 0.0602229 17 -0.0159747 0.00267486 0.999869 1 69 60 36 255 0.728132 30.0313
5.15917 1.51857 0.0590236 17 0.0547539 0.0337825 0.997928 1 56 52 43 255 0.737213 29.5451
5.17643 1.52606 0.0578262 17 0.0684899 0.033718 0.997082 1 61 55 36 255 0.746198 29.8304
5.19401 1.53269 0.0561532 17 0.0578005 0.0253118 0.998007 1 63 51 42 255 0.755079 30.1248
5.21108 1.54112 0.0554374 17 0.0497031 0.0119909 0.998692 1 67 52 37 255 0.763851 30.7271
5.22847 1.5487 0.054246 17 0.0717283 0.0579623 0.995739 1 64 55 39 255 0.772507 28.7671
5.2465 1.55456 0.0521033 17 0.0730121 0.0534431 0.995898 1 74 59 42 255 0.781041 29.0749
5.264 1.56221 0.0509164 17 0.0380497 0.0352731 0.998653 1 79 57 48 255 0.789447 29.3492
5.28123 1.57077 0.0502078 17 0.100005 0.0131925 0.9949 1 77 61 42 255 0.797718 31.9608
5.30007 1.57502 0.0471207 17 0.226906 0.0609136 0.97201 1 60 51 40 255 0.805849 32.7524
4.84805 1.34801 0.086111 17 0.0410225 0.074503 0.996377 1 60 50 47 255 0.557635 27.5961
4.86478 1.35404 0.0844321 17 0.0843787 0.0862972 0.99269 1 57 47 41 255 0.56746 27.4944
4.88173 1.35914 0.0822802 17 0.103876 0.071857 0.991991 1 45 50 33 255 0.577296 28.4687
4.89876 1.36429 0.0801311 17 0.0560517 0.0364981 0.997761 1 58 52 45 255 0.587137 29.8158
4.91511 1.37332 0.0798865 17 0.126844 0.0372128 0.991225 1 61 51 41 255 0.596977 30.7642
4.9332 1.37378 0.0753671 17 0.125839 0.038888 0.991288 1 56 51 41 255 0.606811 30.7674
4.94965 1.38287 0.0751268 17 0.0666313 0.00867346 0.99774 1 49 53 42 255 0.616633 31.7075
4.96693 1.3882 0.0729891 17 0.106244 0.0102243 0.994288 1 56 53 45 255 0.626438 32.3106
4.98408 1.39451 0.0713289 17 0.0829512 0.000240467 0.996554 1 58 48 43 255 0.63622 32.6048
5.00106 1.4018 0.0701451 17 0.0797116 -0.0242515 0.996523 1 57 49 46 255 0.645972 34.3097
5.01809 1.40913 0.0689635 17 0.0363062 -0.0156873 0.999218 1 66 49 45 255 0.655689 32.901
5.0345 1.41927 0.0692045 17 0.0667994 0.0045795 0.997756 1 58 60 41 255 0.665365 32.066
5.05229 1.42386 0.0666062 17 0.101833 0.01609 0.994672 1 63 49 44 255 0.674993 32.0434
5.06946 1.43128 0.0654305 17 0.0853365 0.023533 0.996074 1 65 50 41 255 0.684568 31.3079
5.08716 1.43689 0.0633113 17 0.0964531 0.0284855 0.99493 1 63 53 46 255 0.694083 31.2764
5.10468 1.44346 0.0616676 17 0.0539749 0.000750247 0.998542 1 57 51 44 255 0.703532 32.2228
5.12149 1.45281 0.0614434 17 0.0778994 -0.0248496 0.996652 1 68 49 54 255 0.712909 34.4947
5.13937 1.45854 0.059332 17 0.0640883 0.00662132 0.997922 1 54 52 40 255 0.722208 32.0946
5.15625 1.46793 0.0591107 17 0.0451102 -0.00975295 0.998935 1 52 43 29 255 0.731421 32.7599
5.1737 1.47553 0.0579474 17 0.0799263 -0.00194892 0.996799 1 62 46 36 255 0.740544 33.0276
5.19147 1.48228 0.0563149 17 0.0775102 0.0363332 0.996329 1 56 48 40 255 0.749569 30.6886
5.2093 1.48906 0.0546848 17 0.0901486 0.0365919 0.995256 1 56 53 35 255 0.75849 30.9868
5.22747 1.495 0.0525865 17 0.00952809 -0.0182783 0.999788 1 62 51 38 255 0.767301 32.6585
5.24307 1.50892 0.0547261 17 0.000649504 -0.0258152 0.999667 1 62 51 37 255 0.775997 32.8831
5.26103 1.5158 0.0531018 17 0.0853142 0.0119557 0.996283 1 63 49 37 255 0.784569 32.4387
5.27905 1.52271 0.0514802 17 0.122436 0.007353 0.992449 1 64 54 42 255 0.793013 33.7747
5.29805 1.52705 0.0484514 17 0.191443 0.0455979 0.980444 1 72 53 44 255 0.801322 33.408
5.31841 1.52798 0.0435489 17 0.153886 0.00923049 0.988046 1 63 50 40 255 0.80949 34.8855
4.87374 1.31589 0.0869205 17 0.123021 0.0987668 0.987477 1 58 45 46 255 0.569863 27.9675
4.89107 1.32014 0.0843462 17 0.132249 0.0581745 0.989508 1 57 51 36 255 0.579741 30.2857
4.90847 1.32445 0.0817754 17 0.109365 0.0374952 0.993294 1 52 51 38 255 0.589623 31.244
4.92559 1.33073 0.0801458 17 0.0989598 0.0252446 0.994771 1 57 55 50 255 0.599505 31.8946
4.94295 1.33609 0.0780502 17 0.115078 0.0601146 0.991536 1 49 55 44 255 0.609381 30.1145
4.96058 1.34055 0.0754893 17 0.161312 0.0292467 0.98647 1 57 50 44 255 0.619245 32.8797
4.97869 1.34317 0.0719955 17 0.136293 0.0246811 0.990361 1 51 47 40 255 0.629091 32.8146
4.99607 1.34964 0.0703777 17 0.0792255 0.0010645 0.996856 1 60 50 41 255 0.638914 33.4116
5.0133 1.35708 0.0692301 17 0.0531556 7.94828e-05 0.998586 1 52 45 41 255 0.648708 33.0337
5.03035 1.36549 0.068552 17 0.0545311 -0.00342188 0.998506 1 58 45 45 255 0.658466 33.2998
5.04766 1.37299 0.0674082 17 0.0728988 -0.0164955 0.997203 1 58 51 40 255 0.668182 34.6141
5.06502 1.38052 0.0662666 17 0.0532508 -0.00161748 0.99858 1 61 53 31 255 0.677852 33.1813
5.08218 1.38901 0.0655933 17 0.0601226 0.0117423 0.998122 1 56 54 42 255 0.687467 32.4323
5.09986 1.39568 0.0639889 17 0.128821 0.0343188 0.991074 1 58 46 41 255 0.697022 32.4107
5.1186 1.39872 0.0605227 17 0.184379 0.0535346 0.981396 1 59 48 44 255 0.706511 32.5751
5.1377 1.40093 0.0565951 17 0.093884 -0.0126765 0.995503 1 61 49 41 255 0.715928 35.0818
5.1543 1.41229 0.0573286 17 -0.00787599 -0.0529433 0.998567 1 55 47 41 255 0.725266 35.7985
5.17091 1.42366 0.0580621 17 0.037603 -0.0242699 0.998998 1 48 45 39 255 0.734518 34.5703
5.18887 1.43052 0.0564702 17 0.00767105 -0.0380198 0.999248 1 49 47 46 255 0.74368 34.9272
5.20468 1.44459 0.0585994 17 0.00835584 -0.0179598 0.999804 1 51 45 39 255 0.752743 33.4289
5.22299 1.45061 0.0565459 17 0.12314 0.0388493 0.991629 1 61 50 36 255 0.761702 32.4057
5.24195 1.45489 0.0535668 17 0.107968 0.0461941 0.993081 1 59 49 38 255 0.770551 31.7146
5.26012 1.4619 0.0519838 17 0.091896 -0.0138944 0.995672 1 62 48 36 255 0.779283 35.3345
5.27835 1.46894 0.0504034 17 0.12111 -0.00152288 0.992638 1 61 49 36 255 0.787891 35.3337
5.29755 1.47339 0.0474347 17 0.0753091 -0.00348463 0.997154 1 60 51 39 255 0.796371 34.28
5.31466 1.48401 0.0477135 17 0.122807 0.0265547 0.992076 1 59 56 42 255 0.804715 33.5878
5.3356 1.48422 0.0424358 17 0.135292 0.0662146 0.988591 1 60 54 37 255 0.812918 31.697
4.91936 1.27866 0.0810951 17 0.114797 0.0497542 0.992142 1 53 53 41 255 0.591953 31.4268
4.93653 1.28605 0.0799706 17 0.0772618 0.0367327 0.996334 1 60 50 48 255 0.601874 31.6982
4.95413 1.29156 0.0779237 17 0.150003 0.0621708 0.986729 1 54 42 44 255 0.611789 31.3603
4.97259 1.2933 0.0740322 17 0.150769 0.0535811 0.987116 1 56 46 43 255 0.621692 32.021
4.99035 1.29891 0.0719923 17 0.111053 0.0511712 0.992496 1 55 50 49 255 0.631577 31.5509
5.00838 1.30363 0.0694943 17 0.0836109 0.0140461 0.9964 1 58 47 38 255 0.641439 33.5378
5.02564 1.31217 0.0688441 17 0.05956 0.00870959 0.998187 1 57 43 48 255 0.651271 33.4819
5.04337 1.31886 0.0672739 17 0.0868958 0.00297015 0.996213 1 53 48 43 255 0.661068 34.4454
5.06115 1.32559 0.0657059 17 0.0673757 -0.0105714 0.997672 1 50 51 38 255 0.670823 35.0867
5.07853 1.33421 0.0650616 17 0.0319718 -0.0152775 0.999372 1 58 44 37 255 0.68053 34.7229
5.09571 1.34379 0.0648788 17 0.0678315 -0.0128524 0.997614 1 59 52 44 255 0.690184 35.2757
5.11388 1.34969 0.0628573 17 0.099199 -0.00198808 0.995066 1 58 53 45 255 0.699777 35.2256
5.13188 1.35655 0.0612987 17 0.138283 0.0214825 0.99016 1 56 47 43 255 0.709303 34.5161
5.15121 1.35889 0.0574454 17 0.166501 0.0475237 0.984896 1 58 46 46 255 0.718757 33.5685
5.17013 1.36312 0.0545156 17 0.0502637 -0.0037359 0.998729 1 60 49 39 255 0.728132 34.4528
5.18673 1.37558 0.05572 17 0.0199311 -0.0179962 0.99964 1 53 45 36 255 0.737421 34.7619
5.20497 1.38261 0.0541716 17 0.0300886 0.0109699 0.999487 1 51 46 35 255 0.746618 33.0162
5.22214 1.39327 0.0544597 17 0.0177621 -0.0358872 0.999198 1 50 48 35 255 0.755717 36.042
5.23961 1.40305 0.05429 17 0.0436917 -0.0168834 0.998903 1 60 48 35 255 0.764712 35.2228
5.25769 1.41106 0.0532057 17 0.0955905 0.0323123 0.994896 1 53 47 38 255 0.773596 33.1629
5.27699 1.41556 0.0502926 17 0.105384 0.0375242 0.993724 1 54 50 35 255 0.782362 33.1742
5.29548 1.42276 0.0487559 17 0.0420617 0.0104705 0.99906 1 59 51 35 255 0.791005 33.4188
5.31311 1.43265 0.0485929 17 0.0348511 0.0537337 0.997947 1 55 50 34 255 0.799518 30.7284
5.41404 1.2872 0.0572555 17 -0.0253308 0.0512151 0.998367 1 50 33 22 255 0.826775 32.8489
5.20198 1.13478 0.0688803 17 0.0187066 0.0949299 0.995308 1 54 43 44 255 0.720379 31.8665
5.22122 1.14242 0.0675367 17 0.0678495 0.100697 0.992601 1 46 46 33 255 0.72998 32.4528
5.24133 1.14735 0.0649153 17 0.04789 0.0846243 0.995262 1 48 42 34 255 0.739501 33.0911
5.26016 1.15692 0.0644308 17 0.0414921 0.0679371 0.996827 1 50 44 39 255 0.748936 34.012
5.28014 1.16286 0.0622423 17 -0.0152175 0.0550333 0.998369 1 44 40 40 255 0.758276 33.7434
5.29764 1.17705 0.0638927 17 -0.115257 -0.00528839 0.993322 1 47 42 35 255 0.767518 35.8163
5.31453 1.19302 0.0663938 17 -0.0476749 0.043985 0.997894 1 47 44 36 255 0.776653 33.6622
5.33434 1.19995 0.0646365 17 0.0705224 0.121982 0.990024 1 52 40 38 255 0.785675 31.5647
5.35483 1.20513 0.0620315 17 0.0524638 0.0995552 0.993648 1 51 48 40 255 0.794578 32.4972
5.37417 1.21395 0.0611311 17 0.0442359 0.0869291 0.995232 1 52 45 37 255 0.803356 33.0833
5.3945 1.22014 0.0589579 17 0.036499 0.0748489 0.996527 1 52 51 42 255 0.812002 33.6963
5.41363 1.22991 0.0584869 17 -0.0217411 0.0426408 0.998854 1 58 46 34 255 0.82051 34.3715
5.23583 1.09749 0.0705908 17 0.0768532 0.0981632 0.992199 1 55 42 39 255 0.731627 33.6149
5.25565 1.10441 0.0688721 17 0.0629853 0.101141 0.992876 1 55 42 40 255 0.74117 33.2239
5.2758 1.11045 0.0667361 17 0.0327954 0.0817083 0.996117 1 41 41 35 255 0.750625 33.8644
5.29491 1.1202 0.0662833 17 -0.0220612 0.0645867 0.997668 1 42 44 25 255 0.759987 33.8603
5.31378 1.1309 0.066252 17 -0.0716407 0.0219857 0.997188 1 45 40 39 255 0.769249 35.678
5.3312 1.14615 0.0683186 17 -0.0586417 0.0212745 0.998052 1 48 43 37 255 0.778405 35.8915
5.35038 1.15595 0.0678686 17 0.0342147 0.0755293 0.996557 1 51 44 38 255 0.787448 34.291
5.3708 1.16217 0.0657445 17 0.0733726 0.096824 0.992594 1 48 42 41 255 0.796371 33.955
5.3913 1.16845 0.063624 17 0.088012 0.083458 0.992617 1 52 41 41 255 0.805169 35.2558
5.4122 1.17389 0.0610885 17 0.0452464 0.0742284 0.996214 1 44 42 31 255 0.813834 34.8594
5.43159 1.18383 0.0606479 17 -0.00725357 0.0356081 0.99934 1 57 39 36 255 0.822361 36.1445
5.27087 1.05852 0.0720901 17 0.0467358 0.101509 0.993736 1 52 42 42 255 0.742633 33.731
5.29072 1.06655 0.0708374 17 0.0522953 0.0844408 0.995055 1 44 36 39 255 0.752107 34.9683
5.31119 1.07279 0.0687604 17 0.0358979 0.0654774 0.997208 1 45 43 43 255 0.761487 35.9435
5.33059 1.08273 0.0683395 17 -0.0552469 0.016295 0.99834 1 37 42 35 255 0.770768 37.4509
5.34827 1.09816 0.0703983 17 -0.0549337 -0.0010064 0.99849 1 43 43 36 255 0.779941 38.7253
5.36741 1.10904 0.0703916 17 0.0313616 0.0476423 0.998372 1 46 45 41 255 0.789002 37.0871
5.46564 1.03489 0.0712854 17 0.0421878 0.0840359 0.995569 1 52 41 37 255 0.817971 36.9885
5.4874 1.04085 0.0689418 17 0.0171876 0.0903589 0.995761 1 58 41 41 255 0.826542 35.9959
5.42307 0.955293 0.0762532 17 -0.015761 0.0404783 0.999056 1 48 45 34 255 0.792343 39.7098
5.44338 0.96583 0.0759298 17 -0.00346849 0.0583587 0.99829 1 49 44 41 255 0.801322 38.6218
5.46403 0.975484 0.0752151 17 -0.000155106 0.0739316 0.997263 1 48 40 37 255 0.810174 37.5742
5.48473 0.98517 0.0745024 17 0.00458334 0.063419 0.997977 1 57 44 36 255 0.818894 38.498
5.50547 0.994887 0.0737917 17 0.0188263 0.0792945 0.996674 1 54 41 42 255 0.827474 37.7555
5.46234 0.914643 0.0792914 17 -0.0489036 0.0575873 0.997142 1 58 50 46 255 0.801999 38.593
5.48265 0.926291 0.0793874 17 0.00920369 0.0715377 0.997396 1 50 45 37 255 0.810859 39.042
5.50457 0.933438 0.0775536 17 0.0447208 0.0860776 0.995284 1 67 45 46 255 0.819586 39.0239
5.52625 0.941539 0.0761093 17 0.0288696 0.0727984 0.996929 1 61 39 38 255 0.828173 39.6447
5.50295 0.872348 0.0822533 17 0.00166186 0.107056 0.994252 1 60 55 52 255 0.811316 37.3457
5.52421 0.882396 0.0816167 17 0.0107747 0.0849741 0.996325 1 68 45 45 255 0.820048 39.2097
5.44521 1.02538 0.0720358 17 0.0143201 0.072349 0.997277 1 44 44 35 255 0.809262 37.0353
5.42453 1.01681 0.0731876 17 0.0184787 0.0635211 0.99781 1 43 45 41 255 0.800419 37.7391
5.4042 1.00736 0.0739421 17 -0.0148087 0.0416158 0.999024 1 41 38 35 255 0.791451 38.5168
5.3848 0.995204 0.0734987 17 -0.0397176 0.0455934 0.99817 1 49 42 40 255 0.782362 37.64
5.46847 1.08931 0.0658624 17 0.014184 0.0776398 0.996881 1 65 38 44 255 0.825378 35.7913
5.4473 1.08261 0.0678638 17 0.0329499 0.0881666 0.995561 1 53 43 34 255 0.81682 35.503
5.42713 1.07327 0.0686512 17 0.0273896 0.0748728 0.996817 1 49 39 38 255 0.808123 36.2065
5.40641 1.06576 0.0702528 17 0.0428329 0.0649982 0.996966 1 41 38 29 255 0.799293 37.2394
5.38605 1.0574 0.0714511 17 -0.0173408 0.0286255 0.99944 1 46 42 35 255 0.790337 38.3783
5.36751 1.0436 0.0702126 17 -0.0520466 0.0116031 0.998578 1 49 42 46 255 0.781261 38.9419
5.34838 1.03162 0.0697874 17 0.00393682 0.0531101 0.998581 1 47 45 37 255 0.772072 37.1203
5.32785 1.02425 0.0713977 17 0.0506004 0.077345 0.99572 1 46 42 40 255 0.762776 36.4456
5.45062 1.13489 0.0621415 17 0.0229402 0.0639879 0.997687 1 62 41 43 255 0.823985 35.9792
5.4297 1.12834 0.0641986 17 0.0567209 0.0955747 0.993805 1 49 44 35 255 0.815441 34.7085
5.40916 1.12096 0.0658473 17 0.0736404 0.0802238 0.994053 1 47 49 35 255 0.806758 36.0634
5.38809 1.11542 0.0683239 17 0.0858028 0.0781341 0.993244 1 50 41 37 255 0.797943 36.4292
5.39641 1.27403 0.0560317 17 -0.0644758 0.0298373 0.997473 1 54 43 38 255 0.818432 33.3641
5.37815 1.26264 0.05567 17 0.00747598 0.0626165 0.99801 1 57 46 45 255 0.809946 32.9327
5.35836 1.25571 0.0574667 17 0.0513055 0.0774689 0.995674 1 51 41 38 255 0.801322 32.9696
5.33895 1.24793 0.0588346 17 0.0346047 0.0590259 0.997657 1 49 43 33 255 0.792566 33.6568
5.31988 1.23928 0.0597729 17 0.0681543 0.103304 0.992312 1 47 49 29 255 0.783686 31.7728
5.29942 1.23519 0.0628749 17 0.0402837 0.110185 0.993095 1 52 41 37 255 0.774686 30.7782
5.28104 1.22482 0.0629534 17 -0.0614974 0.00676947 0.998084 1 50 43 41 255 0.765574 35.0067
5.26407 1.2099 0.0608687 17 -0.0357647 0.00615745 0.999341 1 52 49 33 255 0.756356 35.6731
5.24517 1.20137 0.0618141 17 0.0160346 0.0752567 0.997035 1 48 46 32 255 0.747039 32.2272
5.22631 1.19287 0.0627616 17 0.0233277 0.0597672 0.99794 1 49 41 31 255 0.737629 33.2643
5.2075 1.1844 0.0637109 17 0.0364384 0.0908396 0.995199 1 51 45 31 255 0.728132 31.6628
5.18822 1.17782 0.0655302 17 0.0491049 0.0933539 0.994421 1 57 40 46 255 0.718555 31.6922
5.16926 1.17035 0.0669182 17 -0.0105034 0.0506396 0.998662 1 56 44 47 255 0.708904 33.1614
5.39798 1.32746 0.0535887 17 0.00144411 0.0791137 0.996865 1 55 40 30 255 0.824449 31.0834
5.37961 1.31709 0.0536807 17 -0.0209657 0.0460365 0.99872 1 52 46 44 255 0.81613 32.4435
5.36127 1.30673 0.0537736 17 0.0419084 0.0475172 0.997991 1 54 50 42 255 0.807668 33.7469
5.34143 1.30084 0.0560575 17 0.0783089 0.0815136 0.993591 1 54 43 40 255 0.799068 32.4808
5.32197 1.29411 0.0579069 17 0.0244406 0.0601302 0.997891 1 60 47 45 255 0.790337 32.4797
5.30375 1.28384 0.0580051 17 -0.00544084 0.0425568 0.999079 1 55 47 42 255 0.781481 32.9143
5.28526 1.27449 0.0585431 17 0.0495612 0.0955442 0.994191 1 56 49 37 255 0.772507 30.9859
5.2654 1.26968 0.0612777 17 0.0221655 0.0668595 0.997516 1 50 44 39 255 0.763421 31.9609
5.24784 1.25766 0.0605021 17 -0.0851085 0.00225741 0.996369 1 52 44 43 255 0.754229 34.0216
5.23109 1.24291 0.0584078 17 -0.0340689 0.0466181 0.998332 1 58 44 40 255 0.744938 32.22
5.21192 1.23638 0.0602704 17 0.0329918 0.0737569 0.996731 1 56 51 42 255 0.735554 31.7895
5.1936 1.22714 0.0608157 17 0.0266525 0.0589584 0.997905 1 48 48 38 255 0.726084 32.5242
5.17481 1.21977 0.062243 17 0.0798778 0.09156 0.992591 1 57 46 31 255 0.716533 31.5674
5.15533 1.21523 0.0649945 17 0.074398 0.0709026 0.994705 1 55 52 41 255 0.70691 32.5784
5.13691 1.20701 0.0659869 17 0.00845445 0.0186662 0.99979 1 54 47 41 255 0.697219 34.7165
5.11924 1.19602 0.0656582 17 -0.0168136 0.041161 0.999011 1 50 48 36 255 0.687467 32.8304
5.38169 1.36843 0.0508561 17 0.0236905 0.0954344 0.995154 1 52 41 36 255 0.821898 29.9575
5.36323 1.35908 0.0514148 17 0.0225065 0.0685485 0.997394 1 48 42 38 255 0.813605 31.2772
5.34419 1.35153 0.0528633 17 0.0212311 0.0438021 0.998815 1 55 42 42 255 0.805169 32.605
5.32612 1.34136 0.0529808 17 0.00502735 0.0781161 0.996932 1 55 47 40 255 0.796595 30.3978
5.30718 1.33387 0.0544338 17 0.0410353 0.0898587 0.995109 1 50 44 38 255 0.787891 30.43
5.2883 1.32642 0.0558892 17 0.0253727 0.0645922 0.997589 1 61 53 41 255 0.779063 31.4252
5.27004 1.31722 0.0564565 17 0.0237095 0.0689801 0.997336 1 56 43 41 255 0.770117 31.1387
5.25126 1.30984 0.0579165 17 0.00260627 0.085106 0.996369 1 58 46 38 255 0.761059 29.9042
5.23336 1.29978 0.0580417 17 -0.0502046 0.0293775 0.998307 1 62 50 40 255 0.751895 32.0714
5.21629 1.28701 0.05683 17 -0.0303665 0.0196506 0.999346 1 52 51 36 255 0.742633 33.0745
5.19816 1.27788 0.0574026 17 0.0378955 0.0695725 0.996857 1 64 50 54 255 0.733278 31.333
5.17928 1.27154 0.0593164 17 0.0385769 0.0686665 0.996894 1 58 50 44 255 0.723837 31.3492
5.16123 1.26248 0.0598928 17 0.0671662 0.0645458 0.995652 1 63 54 38 255 0.714316 32.0791
5.14199 1.25807 0.0627059 17 0.101751 0.0788836 0.991678 1 62 48 39 255 0.704722 31.8082
5.12331 1.25186 0.0646285 17 0.0220893 0.0475852 0.998623 1 57 50 41 255 0.695062 32.1834
5.10588 1.24103 0.0643164 17 0.0202546 0.0247204 0.999489 1 58 48 38 255 0.68534 33.6247
5.08755 1.23395 0.065796 17 0.0321057 0.0272994 0.999112 1 61 53 37 255 0.675564 33.6419
5.06994 1.2241 0.0659341 17 0.0403083 0.0385243 0.998445 1 50 51 37 255 0.66574 33.0557
5.36677 1.40573 0.0468259 17 0.0164318 0.0871859 0.996057 1 52 40 36 255 0.819124 29.5311
5.34757 1.39915 0.048764 17 0.0706901 0.0873898 0.993663 1 55 47 34 255 0.810859 30.5344
5.32845 1.39261 0.0507051 17 0.00493845 0.0544582 0.998504 1 57 47 37 255 0.802451 30.8671
5.31121 1.38082 0.0499436 17 0.00547233 0.0538837 0.998532 1 53 38 41 255 0.793907 30.9296
5.29219 1.37435 0.0518892 17 0.0638607 0.0740536 0.995208 1 51 49 37 255 0.785232 30.9469
5.27353 1.36704 0.0533865 17 0.0256254 0.0409357 0.998833 1 59 50 40 255 0.776434 31.9756
5.25578 1.35708 0.0535313 17 0.0173562 0.0313778 0.999357 1 55 45 37 255 0.767518 32.3775
5.23749 1.34894 0.0545807 17 0.0569539 0.0611647 0.996502 1 51 47 39 255 0.75849 31.4054
5.21871 1.34264 0.0565367 17 0.0085157 0.0495852 0.998734 1 57 44 41 255 0.749358 31.108
5.2016 1.33093 0.055781 17 -0.0319124 0.0018758 0.999489 1 61 48 46 255 0.740127 33.3019
5.18423 1.32013 0.0554779 17 -0.00882369 0.0309506 0.999482 1 65 48 33 255 0.730803 31.9372
5.16635 1.31118 0.0560813 17 0.0656098 0.0424433 0.996943 1 55 49 40 255 0.721394 32.6043
5.14751 1.30593 0.0584991 17 0.12129 0.0230212 0.99235 1 56 47 43 255 0.711906 35.047
5.12874 1.30073 0.0609204 17 0.0967524 0.0280321 0.994914 1 60 48 40 255 0.702344 34.0437
5.11054 1.29374 0.0624377 17 0.0756205 0.0199921 0.996936 1 56 49 42 255 0.692716 34.1003
5.09239 1.28678 0.0639576 17 0.0558422 0.00840567 0.998404 1 49 47 38 255 0.683027 34.4766
5.07476 1.27799 0.0645718 17 0.0640814 0.0194369 0.997756 1 60 42 44 255 0.673284 33.8547
5.05649 1.27204 0.0665507 17 0.10319 0.0148736 0.994551 1 51 48 37 255 0.663493 34.912
5.03829 1.26614 0.0685325 17 0.0803984 0.0117189 0.996694 1 55 49 39 255 0.653661 34.6188
5.35098 1.44549 0.0446173 17 0.028301 0.0670248 0.99735 1 62 45 37 255 0.81613 30.0161
5.33201 1.43904 0.0466036 17 0.0886287 0.0466829 0.99497 1 50 46 34 255 0.807895 32.3832
4.89499 1.45514 0.079374 17 0.0811912 0.0269043 0.996336 1 55 53 41 255 0.591453 29.1622
4.8787 1.4483 0.0806399 17 0.0819972 0.0260449 0.996292 1 57 49 42 255 0.581704 29.1989
4.86229 1.44246 0.0823965 17 0.0689213 0.0217774 0.997385 1 64 52 35 255 0.571954 29.2459
4.84627 1.43472 0.0831776 17 0.0608023 0.0064305 0.998129 1 57 52 39 255 0.562209 30.0329
4.83012 1.42798 0.0844496 17 0.0454431 0.00737327 0.99894 1 65 54 45 255 0.552475 29.7934
4.81432 1.41932 0.0847444 17 0.00444439 -0.00211054 0.999988 1 58 52 47 255 0.542757 29.9602
4.7987 1.40971 0.0845507 17 0.024216 0.0193801 0.999519 1 62 52 44 255 0.533059 28.9496
5.25281 1.64381 0.0475585 17 -0.00697617 0.0426006 0.999068 1 60 56 39 255 0.789891 26.8896
5.23598 1.63552 0.0483234 17 0.0516546 0.0497721 0.997424 1 67 58 36 255 0.781701 27.5226
5.2186 1.62899 0.0500691 17 0.0679065 0.0473059 0.99657 1 70 54 43 255 0.773378 27.8775
5.20157 1.62163 0.0513274 17 0.0712586 0.0401305 0.996651 1 65 58 45 255 0.764927 28.2398
5.18429 1.61519 0.0530779 17 0.0592871 0.0345373 0.997644 1 61 56 43 255 0.756356 28.2509
5.16763 1.60701 0.0538502 17 0.0417769 0.0408767 0.998291 1 62 54 37 255 0.747671 27.6376
5.15074 1.59974 0.0551146 17 0.0583467 0.0383095 0.997561 1 65 54 45 255 0.738877 28.0023
5.13389 1.59251 0.056381 17 0.0591665 0.0372099 0.997555 1 62 55 38 255 0.72998 28.0398
5.11708 1.5853 0.0576495 17 0.0441252 0.0375894 0.998319 1 62 55 42 255 0.720988 27.7582
5.10058 1.57723 0.0584286 17 0.0148553 0.0341323 0.999307 1 71 54 48 255 0.711906 27.4868
5.08436 1.56828 0.0587174 17 0.0562865 0.0462869 0.997341 1 76 53 43 255 0.70274 27.5135
5.06718 1.56297 0.0609751 17 0.107569 0.0749285 0.99137 1 57 59 33 255 0.693497 26.9218
5.05008 1.55771 0.0632355 17 0.106766 0.0800568 0.991056 1 63 54 44 255 0.684183 26.6229
5.03304 1.5525 0.0654991 17 0.100496 0.0545674 0.99344 1 65 56 37 255 0.674803 27.6272
5.0163 1.54641 0.0672731 17 0.0923705 0.0367063 0.995048 1 58 47 36 255 0.665365 28.3349
4.99961 1.54036 0.0690496 17 0.100774 0.0577499 0.993232 1 58 56 37 255 0.655874 27.386
4.98277 1.53528 0.0713218 17 0.0632437 0.074853 0.995187 1 59 54 45 255 0.646336 26.0851
4.96663 1.52746 0.0721168 17 0.034543 0.0652042 0.997274 1 60 50 48 255 0.636758 26.1631
4.95031 1.52059 0.0734069 17 0.0687976 0.0243488 0.997334 1 56 53 40 255 0.627145 28.5049
4.93404 1.51375 0.074699 17 0.0929827 0.0424349 0.994763 1 57 51 47 255 0.617503 27.8794
4.91744 1.50883 0.0769816 17 0.0749289 0.0499035 0.99594 1 65 53 55 255 0.607838 27.2418
4.90146 1.50112 0.0777838 17 0.0549137 0.0231044 0.998224 1 64 53 39 255 0.598155 28.3342
4.88533 1.49438 0.0790823 17 0.041583 0.0184099 0.998966 1 58 55 40 255 0.588461 28.4167
4.8696 1.48576 0.0793928 17 0.0281247 0.0140179 0.999506 1 65 50 46 255 0.578761 28.5202
4.85372 1.47812 0.0801996 17 0.0834703 0.0323464 0.995985 1 57 53 40 255 0.569061 28.1714
4.83739 1.47339 0.0824943 17 0.125858 0.0475075 0.99091 1 57 59 39 255 0.559366 27.8512
4.82112 1.4687 0.0847919 17 0.053413 0.0297306 0.99813 1 56 53 44 255 0.549681 27.9104
4.80569 1.45921 0.0846129 17 0.0276508 0.0165125 0.999481 1 66 48 44 255 0.540011 28.3857
4.78982 1.45265 0.0859229 17 0.00544159 -0.00159767 0.999984 1 55 51 38 255 0.530363 29.2003
4.77471 1.44124 0.0847527 17 -0.0335075 0.00887093 0.999399 1 63 51 46 255 0.52074 28.3827
4.75918 1.43276 0.085072 17 0.00608147 0.0592341 0.998226 1 53 45 44 255 0.511147 26.1944
4.74354 1.42528 0.0858894 17 0.00859317 0.0911359 0.995802 1 52 57 45 255 0.50159 24.8657
5.23842 1.68096 0.0474067 17 -0.00647138 0.0162788 0.999847 1 50 55 35 255 0.785675 27.4018
5.2221 1.67194 0.0477043 17 0.0458381 0.0353868 0.998322 1 63 55 36 255 0.777528 27.4059
5.20493 1.66554 0.0494912 17 0.0783192 0.0682812 0.994587 1 67 55 46 255 0.769249 26.478
5.18781 1.65918 0.0512805 17 0.0550663 0.0505642 0.997202 1 68 61 43 255 0.760844 26.8047
5.17131 1.65111 0.0520791 17 0.012303 0.0410937 0.99908 1 70 55 44 255 0.752319 26.5448
5.15513 1.64218 0.0523824 17 0.0461429 0.0372005 0.998242 1 57 54 33 255 0.74368 27.2288
5.13815 1.63591 0.054178 17 0.0736832 0.0453973 0.996248 1 67 56 34 255 0.734932 27.2572
5.1215 1.6288 0.0554788 17 0.0611591 0.0396444 0.997341 1 65 56 46 255 0.726084 27.2892
5.10489 1.62172 0.0567817 17 0.0181866 0.0311537 0.999349 1 60 51 46 255 0.717139 27.021
5.0891 1.61198 0.0565929 17 0.015503 0.0366883 0.999207 1 52 47 48 255 0.708106 26.7522
5.07256 1.60495 0.057899 17 0.0770306 0.0410365 0.996184 1 64 55 41 255 0.698989 27.4104
5.05583 1.59886 0.0597054 17 0.0869978 0.0568057 0.994588 1 61 51 35 255 0.689795 26.7941
5.03916 1.59281 0.0615145 17 0.114163 0.0706265 0.990948 1 73 52 50 255 0.68053 26.5329
5.02208 1.58862 0.0643236 17 0.143879 0.0773449 0.986568 1 53 50 44 255 0.671201 26.6067
5.00509 1.58448 0.0671365 17 0.102485 0.0631084 0.992731 1 67 55 38 255 0.661813 26.5569
4.98883 1.57764 0.0684547 17 0.0458631 0.0449334 0.997937 1 63 56 49 255 0.652373 26.6045
4.97283 1.56991 0.0692754 17 0.0585344 0.0543559 0.996805 1 67 48 45 255 0.642886 26.3283
4.95645 1.56405 0.0710972 17 0.0793272 0.0440199 0.995876 1 59 50 37 255 0.633359 27.0231
4.94033 1.5573 0.0724215 17 0.0630712 0.0454347 0.996975 1 56 56 37 255 0.623797 26.7339
4.92425 1.55059 0.0737478 17 0.0639565 0.0442574 0.996971 1 63 48 48 255 0.614206 26.7793
4.90822 1.5439 0.0750759 17 0.0717377 0.067299 0.995151 1 60 49 45 255 0.604593 25.8196
4.89205 1.53819 0.0769072 17 0.0931131 0.0559916 0.99408 1 59 55 41 255 0.594962 26.5215
4.87594 1.53252 0.0787408 17 0.0764234 0.0578409 0.995397 1 58 53 43 255 0.58532 26.2188
4.86005 1.52594 0.0800757 17 0.0728464 0.0268809 0.996981 1 62 52 51 255 0.575672 27.6309
4.84422 1.51939 0.0814126 17 0.0442536 0.0189978 0.99884 1 53 51 36 255 0.566024 27.7107
4.82875 1.51094 0.0817477 17 0.0359866 0.0367976 0.998675 1 60 57 34 255 0.55638 26.7677
4.813 1.50445 0.083088 17 0.0429295 0.0595852 0.9973 1 57 52 40 255 0.546747 25.7839
4.79744 1.49701 0.083928 17 0.0240743 0.0626083 0.997748 1 63 53 43 255 0.537129 25.5076
4.78191 1.4896 0.0847697 17 -0.0156886 0.0692141 0.997479 1 52 47 40 255 0.527532 24.9746
4.7667 1.48026 0.0846068 17 -0.0718299 0.0406411 0.996589 1 60 50 44 255 0.51796 25.939
4.75177 1.46898 0.0834382 17 -0.0716185 0.0403303 0.996617 1 66 48 49 255 0.508419 26.0308
4.73657 1.45965 0.083276 17 0.0154331 0.0821636 0.9965 1 62 52 42 255 0.498912 24.7456
4.72089 1.45427 0.0851288 17 0.0570019 0.0723423 0.99575 1 65 54 45 255 0.489446 25.3989
5.22503 1.71538 0.0462134 17 -0.0076905 0.0496662 0.998737 1 66 53 47 255 0.781261 25.3653
5.2086 1.70734 0.0470344 17 0.00673293 0.0544175 0.998496 1 66 60 39 255 0.77316 25.375
5.19251 1.69846 0.0473545 17 0.0289935 0.0782858 0.996509 1 77 55 47 255 0.764927 24.7778
5.17557 1.69222 0.049184 17 0.0588457 0.0875649 0.994419 1 69 55 45 255 0.756569 24.8105
5.15898 1.68513 0.0505128 17 0.065714 0.0717811 0.995254 1 73 56 48 255 0.748092 25.473
5.14215 1.67896 0.0523469 17 0.0721263 0.056876 0.995773 1 65 54 41 255 0.739501 26.1285
5.12565 1.67194 0.0536802 17 0.0620435 0.0439911 0.997104 1 65 52 42 255 0.730803 26.4916
5.1092 1.66495 0.0550153 17 0.0490358 0.0381183 0.99807 1 67 54 46 255 0.722004 26.5273
5.09305 1.6571 0.0558484 17 0.0151873 0.0408205 0.999051 1 69 57 46 255 0.71311 25.937
5.07719 1.64839 0.0561788 17 0.0363944 0.0318172 0.998831 1 69 57 39 255 0.704127 26.6149
5.06085 1.64148 0.0575193 17 0.0652052 0.0397759 0.997079 1 70 51 46 255 0.695062 26.6412
5.04457 1.63461 0.0588617 17 0.0828087 0.0363572 0.995902 1 72 51 38 255 0.685919 27.0245
5.02809 1.62867 0.0607113 17 0.109534 0.0501372 0.992718 1 67 57 45 255 0.676707 26.7461
5.01144 1.62368 0.0630687 17 0.106295 0.0619527 0.992403 1 68 53 46 255 0.66743 26.1189
4.99508 1.61783 0.0649236 17 0.0852589 0.0773968 0.993348 1 70 56 41 255 0.658095 25.1617
4.97878 1.61202 0.066781 17 0.0890409 0.0686702 0.993658 1 71 55 44 255 0.648708 25.5204
4.96253 1.60624 0.068641 17 0.0951682 0.0533146 0.994033 1 60 54 40 255 0.639274 26.2115
4.94635 1.6005 0.0705033 17 0.0666009 0.0436367 0.996825 1 71 52 39 255 0.6298 26.2508
4.93062 1.59295 0.0713551 17 0.0464115 0.0522131 0.997557 1 70 55 39 255 0.620292 25.6417
4.91473 1.58635 0.0727153 17 0.0472277 0.0510555 0.997579 1 62 51 39 255 0.610755 25.685
4.89908 1.57884 0.0735703 17 0.0635394 0.0539014 0.996523 1 69 59 37 255 0.601196 25.7263
4.88309 1.57324 0.0754417 17 0.0614954 0.0596874 0.996321 1 66 52 40 255 0.591619 25.431
4.86752 1.56579 0.0763002 17 0.0754885 0.0695983 0.994715 1 72 57 45 255 0.582032 25.1469
4.85146 1.56121 0.0786838 17 0.0764524 0.0682579 0.994734 1 56 58 45 255 0.572438 25.1709
4.83598 1.55381 0.0795463 17 0.0219644 0.0705761 0.997265 1 64 57 42 255 0.562843 24.6035
4.82052 1.54644 0.0804102 17 0.0332495 0.0475603 0.998315 1 71 60 33 255 0.553254 25.6553
4.8051 1.5391 0.0812755 17 -0.0221085 0.0498976 0.99851 1 62 55 42 255 0.543675 25.1564
4.79017 1.52888 0.080616 17 -0.0517179 0.0680904 0.996338 1 73 56 51 255 0.534111 24.2972
4.77495 1.52059 0.0809746 17 -0.0343159 0.0711992 0.996872 1 73 57 40 255 0.524568 24.2983
4.75989 1.51136 0.0808248 17 -0.0340054 0.0707964 0.996911 1 67 56 39 255 0.51505 24.3544
4.7447 1.5031 0.0811851 17 -0.0372355 0.04459 0.998311 1 67 54 42 255 0.505562 25.4548
4.7298 1.4929 0.0805267 17 0.0166274 0.046946 0.998759 1 61 51 48 255 0.496109 25.7103
4.71429 1.48763 0.0824189 17 0.0577732 0.0782428 0.995259 1 66 55 39 255 0.486696 24.6345
4.69906 1.48041 0.0832928 17 0.0346972 0.0479789 0.998246 1 69 57 44 255 0.477327 25.7798
5.22891 1.75502 0.0430741 17 -0.0848451 0.0330328 0.995847 1 69 61 35 255 0.784569 24.4667
